# .PCD v0.7 - Point Cloud Data file format
VERSION 0.7
FIELDS x y z rgba
SIZE 4 4 4 4
TYPE F F F U
COUNT 1 1 1 1
WIDTH 1088
HEIGHT 1
VIEWPOINT 0 0 0 1 0 0 0
POINTS 1088
DATA ascii
-0.90722829 -0.025234422 1.0875794 4280425772
-0.87488621 -0.013523477 1.0954332 4286213230
-0.85795265 -0.0130734 1.0920395 4287003013
-0.82407933 -0.025033262 1.0883822 4285291869
-0.79565227 -0.024266763 1.0865549 4282531133
-0.76674736 -0.020120868 1.0884457 4282925128
-0.73181713 -0.021874717 1.096066 4288715425
-0.69787467 -0.014041942 1.0843451 4287862412
-0.66829503 -0.012026743 1.088196 4287990660
-0.64471191 -0.010776478 1.1001401 4289831317
-0.62035531 -0.0075446651 1.1058065 4290949036
-0.58657837 -0.0047978805 1.1027526 4291739833
-0.55931205 -0.0065675862 1.1032616 4292266437
-0.52157754 -0.0049201301 1.102922 4292529867
-0.49502963 -0.0053913514 1.1035099 4292332486
-0.45991445 -0.0042028474 1.0937963 4289436569
-0.43575281 -0.0094284015 1.0977384 4289633945
-0.40570495 -0.015478075 1.1036221 4290291101
-0.37547001 -0.013614896 1.1042283 4290224535
-0.3476766 -0.0059608016 1.1040962 4290554275
-0.31572452 -0.011970579 1.100216 4291411641
-0.2851077 -0.011098657 1.1008787 4291740100
-0.25387543 -0.009411322 1.0967087 4290879889
-0.21755609 -0.00760224 1.101656 4291211953
-0.1901505 -0.006013792 1.1051009 4292201939
-0.16451944 -0.0082536498 1.1006449 4292465372
-0.13740171 -0.0090294331 1.0966973 4292531165
-0.10826295 -0.019461287 1.0881089 4292991982
-0.080114298 -0.023887692 1.0901405 4292530388
-0.048470903 -0.0079227304 1.0956854 4294308085
-0.0075914692 -0.020765942 1.0901146 4286342966
0.008945642 -0.018785283 1.0860386 4283706645
0.042903349 -0.0066283043 1.0913229 4286868312
0.077787541 -0.021816786 1.0851572 4289307038
0.10144506 -0.023217279 1.0842729 4292399310
0.13949285 -0.012375523 1.0870038 4286875026
0.16257215 -0.015418542 1.0910145 4289440940
0.19882551 -0.019709285 1.0927653 4292005838
0.22294784 -0.018272432 1.0889708 4293715173
0.25628638 -0.020976923 1.0949445 4294044135
0.28312606 -0.02044227 1.0907998 4293780962
0.31210172 -0.023297509 1.0831289 4293912550
0.34930247 -0.028226707 1.0897501 4293780704
0.37430239 -0.023988331 1.0877135 4293320155
0.40923381 -0.026838953 1.0828609 4293846759
0.43286186 -0.02678575 1.0853964 4293056214
0.47127837 -0.027260059 1.0821555 4292990418
0.49761996 -0.026751593 1.0853428 4292530125
0.52595741 -0.025280604 1.0831137 4291608762
0.55528826 -0.02660525 1.0844241 4289633426
0.58388275 -0.025948405 1.0846424 4287395959
0.6129511 -0.026510766 1.0826988 4286872183
0.63970858 -0.024456803 1.0817654 4284041028
-3.242131 0.018918378 1.0817684 4288252065
-3.2204685 0.016361522 1.0927192 4288186271
-3.1879764 0.015950467 1.0997632 4288252816
-3.1704726 0.016768347 1.0921028 4288187286
-3.1381803 0.014236516 1.0998298 4288185741
-3.1125348 0.018420069 1.0969003 4288384410
-3.0806756 0.0095114019 1.1023872 4287988355
-2.1056304 0.015195523 1.0868634 4286274599
-2.0791366 0.0085486304 1.0882913 4287652399
-2.0548937 0.011910631 1.0957795 4287586610
-2.0359135 0.022196185 1.105176 4287521336
-1.8689418 0.010986165 1.0904571 4284233492
-1.838467 0.023972474 1.0856158 4285415968
-1.8051143 0.0076934863 1.0918415 4287450140
-1.7852306 0.013790612 1.0943954 4293251519
-1.7465913 0.018547855 1.0817335 4293649632
-1.7223762 0.013886824 1.0924306 4294439926
-1.6933243 0.020651387 1.1026535 4293319906
-1.6663495 0.01784827 1.1005845 4293386211
-1.6369079 0.019896526 1.1012452 4292727250
-1.6084194 0.020289855 1.099375 4288711307
-1.5805079 0.018335158 1.100698 4284701031
-1.549476 0.018969472 1.0963135 4286215034
-1.5191207 0.0061862436 1.0874567 4292201678
-1.490096 0.011804272 1.0896797 4285359980
-1.452534 0.0052434402 1.0875366 4288645296
-1.4294277 0.015688322 1.0939379 4291211709
-1.3986839 0.0075187231 1.0869836 4289631891
-1.3709973 0.006794659 1.0854218 4291476929
-1.3403589 0.013945969 1.0922204 4292265679
-1.3040991 0.0041757454 1.0861622 4288383095
-1.2724485 0.0059366617 1.0893148 4288717737
-1.2534846 0.005726363 1.093376 4287401105
-1.2226286 0.021791551 1.0988513 4282003518
-1.1848326 0.017107911 1.0950128 4281281075
-1.1550713 0.014523258 1.0935628 4281149486
-1.0357373 0.01131139 1.0916017 4282925639
-1.0103313 0.019263951 1.0933766 4280688937
-0.93967897 0.01703083 1.0877018 4279964698
-0.92185283 0.013180263 1.085044 4281543217
-0.8835566 0.016441185 1.0904834 4282268222
-0.85839742 0.022578692 1.0987705 4281085750
-0.8260048 0.024266096 1.1015999 4286477676
-0.79210597 0.014490663 1.0909117 4289307037
-0.76554102 0.019330341 1.1016742 4289306780
-0.73714483 0.006782704 1.0839863 4286082669
-0.69878745 0.0025294626 1.0826871 4286476915
-0.66932976 0.00439863 1.0832371 4288186752
-0.6433388 0.0093158828 1.0871043 4290226077
-0.61467046 0.01310363 1.0885652 4291213232
-0.58626783 0.011260081 1.0928724 4291871419
-0.55504793 0.012241377 1.0921562 4292332484
-0.52461201 0.012145429 1.0925803 4292332484
-0.49474239 0.01325261 1.0909802 4290425005
-0.46315041 0.0085510425 1.0855348 4288383362
-0.43313774 0.0088191675 1.0857114 4288713099
-0.40034023 0.0065382854 1.0872401 4289831326
-0.37690666 0.0082195215 1.0866911 4290554019
-0.34530744 0.0092190951 1.0901428 4290685350
-0.32424435 0.016691489 1.0872829 4291411139
-0.28541163 0.015093572 1.0950906 4291408805
-0.25445631 0.012379512 1.093587 4292398287
-0.22537272 0.010822346 1.0916072 4292530906
-0.19739898 0.0072363392 1.0928228 4292794078
-0.16752602 0.0070456821 1.0854216 4292728543
-0.13293815 0.0029040747 1.0854654 4292991460
-0.10427584 0.0041638003 1.0938373 4294572026
-0.076156847 0.0081337318 1.0973191 4294505976
-0.046098132 0.012118307 1.0891711 4294177013
-0.01881418 0.011632669 1.0898443 4294308342
0.015929842 0.013801316 1.0931728 4294241773
0.045147438 0.014617509 1.0911313 4293977568
0.071573861 0.017561665 1.0872287 4293054660
0.10569342 0.0055721463 1.0907454 4278979602
-3.2200882 0.047671229 1.0921302 4288252059
-3.1896784 0.040667757 1.0967815 4288121750
-3.1655087 0.0569329 1.0860286 4288120715
-3.1324723 0.04669084 1.0971063 4288186250
-3.1077781 0.041783907 1.1038005 4288055703
-3.0740323 0.041768707 1.1049482 4288252301
-2.1318779 0.043608047 1.0883982 4284499504
-2.1135125 0.036359288 1.0941161 4285223211
-2.0794067 0.0386394 1.0934018 4286799672
-2.0566885 0.044998974 1.0969589 4287455536
-2.0301716 0.043422237 1.1015877 4287192362
-1.8667911 0.050456025 1.0915978 4286997587
-1.8386977 0.051899359 1.101666 4292859087
-1.8123286 0.04913618 1.0932139 4294505719
-1.7867982 0.045320056 1.0977654 4294506233
-1.7550631 0.046471741 1.0974292 4294505975
-1.721246 0.044499572 1.0891607 4293846763
-1.696079 0.03647149 1.0937521 4293385440
-1.664292 0.040764544 1.0903717 4293451747
-1.6400785 0.038874261 1.0876352 4293055964
-1.6075674 0.039863601 1.0894214 4292660689
-1.5746552 0.038970347 1.0940794 4285225827
-1.5470026 0.042824086 1.0943019 4283320400
-1.5171283 0.04794772 1.0870192 4283056710
-1.4774864 0.04258259 1.1017036 4294041312
-1.4559453 0.045137689 1.0927444 4290679990
-1.4227771 0.037952632 1.0973401 4292068809
-1.3967625 0.039789017 1.0866821 4293715428
-1.3622109 0.038227331 1.0877 4293253855
-1.3367879 0.050898243 1.1026971 4293517794
-1.305783 0.055868071 1.1049364 4293254107
-1.2735574 0.051256869 1.0997498 4292728533
-1.2389917 0.051498953 1.1003512 4290951343
-1.2239121 0.03420784 1.0865107 4281741115
-1.1973046 0.03368599 1.0836284 4281149745
-1.0229572 0.032261226 1.0844685 4279703070
-1.0131195 0.034176748 1.0857687 4279966241
-0.9264915 0.032146774 1.0854713 4287532936
-0.87563151 0.045997187 1.0893252 4279242005
-0.85199606 0.037635062 1.083889 4286084208
-0.82996798 0.040178128 1.0851234 4288648597
-0.79548144 0.038151685 1.0892559 4287989896
-0.77228719 0.03809138 1.0850474 4287924614
-0.66706389 0.048924189 1.1040421 4281345573
-0.64879405 0.050943077 1.1030754 4279833103
-0.61315596 0.039265245 1.0867287 4290885817
-0.58819854 0.036845829 1.088128 4290557365
-0.55225283 0.039559126 1.0882921 4291675589
-0.5254426 0.041274235 1.0908203 4292070092
-0.49511465 0.040924594 1.0901647 4290226858
-0.46272644 0.038065817 1.0859662 4289371801
-0.43564233 0.040826108 1.0974476 4290886073
-0.39982677 0.035514876 1.0878381 4289635491
-0.38066691 0.036601745 1.0851883 4292398534
-0.34712526 0.043722603 1.0927771 4293583587
-0.31870216 0.036778543 1.0865765 4293452776
-0.29085514 0.035618413 1.0902045 4293584104
-0.25900733 0.035743661 1.0874864 4291084229
-0.22816749 0.033377461 1.0926495 4294373877
0.041915208 0.030198546 1.0800502 4294373873
0.082139567 0.032178625 1.0803003 4294307566
0.10175385 0.046179384 1.0864997 4279173897
-3.2145905 0.075611271 1.0971038 4287924370
-3.1904392 0.073318049 1.100721 4288120715
-3.1568317 0.077703632 1.0966599 4288055438
-3.1368694 0.06739299 1.0922997 4287988872
-3.1127892 0.073633336 1.0951521 4287923597
-2.1038966 0.064728014 1.0836608 4284433448
-2.0831206 0.072116002 1.0958828 4283843630
-2.0538681 0.074964106 1.0960214 4287718961
-2.0297899 0.073044866 1.0969361 4286797861
-1.8727671 0.063920848 1.0817623 4286866770
-1.8368999 0.075671352 1.0912745 4294835452
-1.8147198 0.073953882 1.0946076 4294835709
-1.7893009 0.066803001 1.09104 4294638074
-1.7505598 0.074761264 1.0905435 4294704123
-1.7245851 0.075723216 1.0987599 4294770172
-1.6966431 0.071686506 1.1004202 4294769915
-1.6595389 0.076326132 1.0924237 4294638331
-1.6322719 0.075491093 1.0939664 4294637816
-1.6009588 0.075214997 1.0935425 4294571767
-1.5736532 0.076342292 1.0902381 4294308340
-1.5485337 0.077556469 1.0891709 4292992223
-1.5166279 0.072447464 1.0917339 4294373874
-1.4856616 0.074278846 1.0927595 4294308336
-1.4564028 0.071520247 1.0925421 4293648604
-1.4260757 0.071649291 1.0935441 4291806410
-1.3922445 0.071834438 1.0891387 4293583073
-1.3628275 0.071939744 1.0913666 4292464591
-1.3316426 0.069775708 1.0912832 4292728279
-1.3052464 0.071486279 1.0872774 4292794327
-1.2766589 0.069514975 1.0891136 4292991192
-1.249281 0.066216387 1.0929964 4292661967
-0.88928491 0.061982866 1.0859201 4279306762
-0.64770585 0.073701106 1.096665 4278649859
-0.6136508 0.073707424 1.1070075 4278781445
-0.57144225 0.064402021 1.0803399 4284439133
-0.54747552 0.08946918 1.1099429 4278978564
-0.4617705 0.085829206 1.1084245 4279965472
-0.44968385 0.078645974 1.1088026 4281345579
-3.2504792 0.11378548 1.0917941 4288120213
-3.2229261 0.11114301 1.0900115 4287923856
-3.1861675 0.10291021 1.0839527 4288185739
-3.1697245 0.11186147 1.0918574 4287988875
-3.1409988 0.10438147 1.0992922 4287922823
-3.112025 0.10917668 1.0920253 4288710553
-2.1019924 0.096105978 1.1069229 4292731862
-2.0802364 0.098367028 1.0920031 4284301359
-2.0517428 0.10348779 1.0947562 4289564536
-2.0293915 0.095460139 1.1030458 4286732073
-1.8250704 0.090980656 1.0814042 4294901502
-1.7434506 0.094365112 1.0945162 4294703352
-1.7329735 0.094032697 1.0843896 4294703867
-1.6941444 0.093659401 1.0826709 4294638073
-1.669747 0.092606239 1.0817862 4294505718
-1.6274923 0.093284726 1.0810699 4294835707
-1.5989698 0.09181688 1.0826961 4294506228
-1.5704312 0.091772363 1.0831168 4294109675
-1.5380861 0.090590507 1.0818031 4294505973
-1.4820294 0.092954412 1.0836282 4294373873
-1.4653759 0.091065407 1.083115 4294308591
-1.3631459 0.090807438 1.0802755 4290224018
-0.64012915 0.10320907 1.0878507 4278649864
-0.61671829 0.1084994 1.0867589 4278715908
-0.58431995 0.1039304 1.0988935 4278650374
-0.55665201 0.10276695 1.1036507 4278913548
-0.51883096 0.10771935 1.1075923 4280295474
-0.45859742 0.095666617 1.1068794 4280688429
-3.2447734 0.13967791 1.089783 4287792016
-3.2268572 0.13332826 1.0945739 4287857804
-3.1908748 0.13787161 1.0987928 4288054152
-3.1605067 0.13900098 1.0943594 4287199612
-3.1443872 0.13698119 1.1001575 4287002490
-2.0774543 0.13812636 1.0916817 4293514443
-2.0618804 0.12782392 1.0945836 4291670945
-2.0372412 0.12276837 1.1022863 4292327082
-0.57641417 0.12268947 1.0828028 4278715918
-3.283453 0.16673124 1.0888473 4287857036
-3.2531834 0.16255541 1.0954418 4287595149
-3.2220175 0.16138153 1.0987103 4287857546
-3.1905842 0.17108719 1.0859946 4287857291
-3.1683958 0.16336904 1.0923758 4287724930
-3.1455059 0.16755728 1.0985258 4287658882
-3.288137 0.19290891 1.0840898 4287857050
-3.2530427 0.19657612 1.09232 4287595142
-3.2302113 0.19991133 1.0919344 4287660420
-3.1937656 0.20321202 1.0869353 4287528323
-3.1741543 0.19244404 1.093467 4287462012
-3.139843 0.19262494 1.090176 4288382354
-3.2813003 0.22577824 1.0891786 4287529869
-3.2481709 0.22340916 1.0875618 4287659653
-3.2322738 0.21797439 1.1051339 4287595140
-3.1903908 0.22638538 1.0885664 4287594625
-3.175097 0.22915089 1.0894545 4288053642
-3.3268328 0.24462433 1.0973109 4287465357
-3.2790151 0.26023042 1.1000826 4287529098
-3.2569065 0.25054997 1.097494 4287529097
-3.1932867 0.25787625 1.0915755 4287790721
-3.1744194 0.25005868 1.1034173 4287987846
-3.3071828 0.27037597 1.080532 4287398795
-3.2854106 0.28633568 1.0962628 4287464076
-3.2682586 0.28761837 1.1055149 4287464332
-3.2157047 0.28434792 1.0979759 4287593856
-3.1961749 0.28385952 1.0942894 4287724934
-3.1772771 0.28953695 1.1061567 4287987337
-3.3106205 0.32248461 1.0924592 4287333001
-3.2804408 0.31294936 1.1030861 4287398281
-3.2596397 0.31663728 1.0899185 4287332487
-3.2277606 0.32401383 1.0944643 4287790474
-3.1937745 0.31515694 1.0928055 4287462539
-3.1705115 0.32840404 1.1097943 4287330945
-3.3612056 0.35520086 1.0930477 4287463812
-3.3324435 0.34114358 1.1098549 4287332998
-3.3163261 0.3422308 1.0847291 4287267467
-3.2882504 0.33449858 1.1009504 4287595149
-3.2471433 0.35406041 1.0931103 4287200387
-3.2280223 0.34237337 1.093336 4287528329
-3.1901743 0.33488655 1.0943913 4287330947
-3.3491843 0.37648144 1.1031924 4287267213
-3.3230338 0.38734519 1.0857342 4287266444
-3.2712996 0.37499166 1.0874035 4287527811
-3.2552514 0.37666899 1.0993283 4287527812
-3.3333631 0.41091713 1.0836802 4287201154
-3.309468 0.40467286 1.0936735 4287463046
-3.278532 0.39938664 1.0877876 4287593352
-3.2506661 0.39549977 1.1014284 4287594373
-3.2313263 0.40140137 1.0855662 4287331203
-3.3506808 0.43000257 1.0932409 4287200646
-3.3021111 0.4223336 1.0897995 4287133315
-3.284956 0.43426651 1.1018562 4287330949
-3.3710957 0.46957505 1.1048765 4287134861
-3.3393178 0.4511081 1.0878297 4286939528
-3.3111982 0.46976003 1.0878377 4287527559
-3.2872841 0.46062812 1.0975678 4287265155
-3.4017684 0.49036399 1.0889107 4287069313
-3.3815174 0.49335828 1.1028039 4287069569
-3.3355966 0.49371457 1.0874759 4286936449
-3.3177805 0.50102204 1.094539 4287199362
-3.299644 0.48250341 1.0854793 4287330176
-3.4028311 0.52857691 1.0958748 4287069310
-3.3845215 0.51363391 1.1048974 4286872704
-3.3462574 0.52494979 1.0965123 4286936704
-3.313575 0.52507025 1.0975863 4287724171
-3.4018915 0.55327266 1.1014432 4286872705
-3.3694303 0.56627071 1.0850214 4287068025
-3.345367 0.55480033 1.0988898 4287264639
-3.3170552 0.55620062 1.1029851 4287593095
-3.4009516 0.57796854 1.1070117 4287003774
-3.368686 0.58553809 1.0872225 4287199101
-3.342607 0.58434564 1.099159 4287067776
-3.319639 0.5791589 1.1000839 4287593095
-3.4014099 0.61642408 1.0872567 4286673781
-3.3716438 0.61667961 1.0928681 4287001982
-3.343797 0.61291736 1.0982672 4287264127
-3.3194091 0.62028784 1.098233 4287396740
-3.3976758 0.64419353 1.090686 4286870654
-3.3813136 0.64000589 1.0942672 4287067771
-3.3508031 0.64003044 1.1038382 4288053380
-3.3111989 0.63367063 1.1032344 4291073172
-3.4246438 0.67579436 1.0806382 4287396492
-3.39888 0.67812097 1.0828269 4286674550
-3.3833752 0.67719251 1.0944887 4286870910
-3.4347541 0.70406485 1.0848764 4286673782
-3.3965683 0.69530469 1.0911657 4287198332
-3.3824699 0.70681858 1.0921843 4287001218
-3.4597528 0.74198359 1.0951036 4286607735
-3.4364531 0.7226423 1.10658 4287001470
-3.4005969 0.72529131 1.1083024 4286804348
-3.4809272 0.77730113 1.1084639 4286672758
-3.4672947 0.76278412 1.0873179 4286738296
-3.4420953 0.76315159 1.1061684 4286541947
-3.4603906 0.78942513 1.0897613 4286672758
-3.4909616 0.81852889 1.0967153 4286606710
-3.4754188 0.81632167 1.1085916 4286869617
-3.490634 0.85828513 1.0928843 4286606963
-3.4741206 0.84797961 1.1063185 4286541683
-3.5325527 0.88980627 1.0920886 4286344830
-3.4907391 0.88748878 1.089811 4285753721
-3.4686124 0.88700008 1.1064461 4285691251
-3.4927332 0.9182874 1.0851583 4286874758
-3.4647062 0.91495103 1.0955573 4281084491
-0.0053939009 0.92663801 1.1049817 4278452993
0.0033722857 0.92514944 1.1040678 4279110149
-0.21253982 0.95576143 1.0804349 4283775025
-0.19094336 0.95239866 1.0937783 4283840048
-0.16705461 0.94849491 1.0942441 4283644453
-0.13563319 0.94582856 1.0950464 4283052320
-0.10294708 0.94696176 1.1039547 4281868307
-0.076655805 0.95316535 1.0939382 4282263317
-0.047083706 0.95085579 1.1000888 4282197784
-0.007360715 0.94019794 1.104107 4279830787
0.0048161899 0.94349509 1.101631 4279830275
-3.5703018 0.96979058 1.0896994 4278718509
-0.57663703 0.9880693 1.1093402 4281410076
-0.52465665 0.98697925 1.1073744 4282395928
-0.47023112 0.9898349 1.1082158 4283446824
-0.42760283 0.98675978 1.102222 4283513903
-0.39746344 0.98730022 1.105759 4284106547
-0.36960033 0.98612452 1.1068052 4284039986
-0.33772957 0.98611653 1.105432 4284172081
-0.31410134 0.98637098 1.1069958 4284303409
-0.29006529 0.98749453 1.103978 4283908134
-0.25308195 0.98485607 1.1032205 4283775785
-0.2236774 0.98650962 1.1061457 4283512097
-0.19976319 0.98579866 1.1051806 4283447078
-0.16356267 0.98610258 1.1080302 4283643684
-0.13364698 0.9883306 1.1052251 4283117601
-0.11271174 0.98611641 1.1060654 4283052320
-0.07314299 0.98547709 1.1031278 4282526744
-0.046065636 0.98330289 1.1049384 4281475340
-0.02145686 0.98129392 1.0992279 4281672718
0.01244943 0.97211838 1.1024287 4281146384
0.032774657 0.97700781 1.1077864 4280752138
-3.5916517 0.99160326 1.1068207 4278780683
-2.1604712 0.99889034 1.106267 4278913556
-2.1435692 1.0100119 1.1010101 4282787100
-1.9469821 1.0168771 1.1013185 4279108365
-1.9131179 1.0198079 1.1062776 4278780677
-0.67284214 1.0071669 1.1001799 4280949005
-0.64420527 1.0024873 1.0953263 4280817681
-0.6088835 1.0107639 1.0943764 4280882703
-0.57825381 1.012974 1.0895444 4281737750
-0.55265826 1.0103166 1.0941435 4282198294
-0.51919073 1.0058837 1.0906283 4282592283
-0.495193 1.0064833 1.0941823 4282921501
-0.46476245 1.0057001 1.096705 4283513380
-0.42921162 1.0099665 1.0894073 4283316016
-0.4056074 1.0051186 1.0952921 4284171825
-0.3747237 1.0058879 1.0967208 4283973932
-0.34510782 1.0049167 1.0955781 4284302892
-0.31284392 1.0052834 1.0888613 4284237101
-0.28391039 1.0037733 1.0950266 4283908141
-0.25635073 1.0073335 1.09623 4283645483
-0.2176144 1.0108117 1.0882326 4283578407
-0.19047196 1.0109671 1.0846272 4283709480
-0.1651717 1.003328 1.0932851 4282788894
-0.13540828 1.0011909 1.0917711 4282854431
-0.10472093 1.0032362 1.0923139 4282657565
-0.077610455 1.0014162 1.0931828 4282329623
-0.049292568 1.0079801 1.1049545 4285815108
-0.015781756 1.0114838 1.1009288 4282133271
0.010989543 1.0163314 1.1080598 4282066965
-3.4988904 1.037622 1.1021636 4283511582
-3.4564557 1.0405045 1.0998185 4283709213
-3.4094872 1.0386809 1.1023576 4283905571
-3.3572912 1.032066 1.1093063 4284365351
-3.3231201 1.039699 1.1025374 4284366895
-2.9182515 1.0442892 1.1088639 4285158197
-2.8785779 1.0497627 1.1081074 4285287984
-2.7915554 1.0396272 1.1081336 4284105264
-2.7529602 1.0396999 1.108477 4284696621
-2.6838675 1.0381942 1.1039648 4284037420
-2.6549311 1.0422128 1.1043247 4285155892
-2.6227021 1.042694 1.1064689 4282920743
-2.6007156 1.0458635 1.1068166 4285288249
-2.5772462 1.0471647 1.1022377 4282592033
-2.50684 1.0420618 1.1020387 4285090103
-2.4824481 1.0412822 1.1049864 4285156663
-2.4531064 1.0419255 1.1051702 4285615669
-2.4197865 1.0477852 1.1041288 4284696107
-2.3865278 1.039232 1.1000142 4285156662
-2.3553801 1.0451322 1.0994076 4285746997
-2.3182414 1.0409242 1.1011288 4285681212
-2.2964358 1.0417061 1.1024113 4285812029
-2.2286315 1.0418303 1.1080526 4284430877
-2.2001233 1.0459498 1.0989566 4284760881
-2.1766059 1.0369251 1.1036812 4285417773
-2.1381969 1.0375254 1.0985942 4282656039
-2.1196957 1.0432372 1.0990348 4282788367
-2.0971403 1.0277598 1.0854871 4279503383
-2.065623 1.0469276 1.0864431 4279108876
-1.9546021 1.0412424 1.0981097 4282658103
-1.932227 1.0368143 1.0954006 4282130199
-1.9068992 1.0384852 1.0954447 4279960336
-1.8866501 1.0423608 1.1047945 4278912265
-1.3911629 1.0411838 1.1028425 4278518274
-1.3656216 1.0397174 1.0952033 4278780675
-1.3479838 1.0424094 1.0938962 4279764226
-1.3089508 1.0439299 1.0878078 4279043076
-1.2761265 1.0361284 1.0867414 4279239686
-1.2537245 1.0392092 1.0824934 4279042825
-0.68097961 1.0207033 1.0906534 4281538584
-0.64351338 1.0221829 1.0888473 4281146641
-0.60883182 1.0270342 1.0868763 4281343246
-0.58391005 1.0254799 1.0863504 4281606423
-0.55283207 1.0240575 1.0836873 4282132761
-0.52830291 1.0256672 1.0851706 4282723868
-0.4904753 1.0226972 1.0832281 4283382050
-0.464573 1.0241166 1.0839548 4283381796
-0.42655289 1.0222818 1.0825785 4283644709
-0.40386701 1.0224628 1.0851953 4284105520
-0.37071532 1.0231991 1.0823225 4284170545
-0.35037434 1.022521 1.0828979 4284500528
-0.31579852 1.0237825 1.0844135 4284106285
-0.28256714 1.0222307 1.0838037 4283908395
-0.25479686 1.0232077 1.0844672 4283710760
-0.22149205 1.0241754 1.085763 4283447844
-0.20208652 1.0232217 1.0850537 4283447592
-0.16686097 1.0222337 1.0833194 4282789401
-0.13550563 1.0287226 1.0901041 4282592791
-0.10065962 1.0253245 1.083818 4282066702
-0.075126462 1.0267367 1.0873187 4281804050
-0.054210734 1.0316743 1.0896276 4282067991
-0.0092642149 1.0328912 1.0890286 4281672470
0.012973587 1.036342 1.0973202 4281541653
-3.4537015 1.0600147 1.0998822 4284167452
-3.412374 1.0627663 1.0977242 4284037668
-3.360153 1.0559417 1.1047131 4284299823
-3.3452053 1.0583493 1.0840712 4284168235
-3.3002431 1.0563891 1.0866252 4284235042
-3.267283 1.0637387 1.0802319 4284235047
-2.9275675 1.0655485 1.1070113 4284894768
-2.8963518 1.0665261 1.0998015 4284762409
-2.8595352 1.0644664 1.0966299 4284500017
-2.8397155 1.0669713 1.0960724 4284565803
-2.7932315 1.0633557 1.0863206 4284302382
-2.7720561 1.0615041 1.0998493 4284433964
-2.7450042 1.0650365 1.0917183 4284696382
-2.7175994 1.0656031 1.0932443 4284565812
-2.6894226 1.068681 1.1015424 4284828472
-2.6540725 1.0653386 1.0969566 4284696881
-2.6248379 1.0689927 1.0961637 4284696368
-2.5960045 1.0615119 1.0967602 4283907875
-2.562829 1.0613331 1.0959624 4282853913
-2.5290232 1.0611007 1.0945861 4285221937
-2.5085557 1.0600384 1.0889663 4281738012
-2.4813366 1.0653666 1.088111 4282591773
-2.4459381 1.0612004 1.091767 4285025333
-2.4135396 1.0664792 1.0927479 4284170278
-2.384593 1.0609212 1.0955967 4285484853
-2.3576632 1.071542 1.0904336 4282067500
-2.3279376 1.062166 1.0951664 4285419573
-2.2893124 1.0622144 1.0882322 4285287470
-2.255579 1.0626564 1.0871022 4284696620
-2.2313843 1.0601592 1.0939491 4285023279
-2.206593 1.0665269 1.0936813 4284563501
-2.1763337 1.0555153 1.0886965 4284957744
-2.1454203 1.0598303 1.0929369 4284564008
-2.1147943 1.0608902 1.0853978 4283642652
-2.0805373 1.0616671 1.0846089 4281342231
-2.0621986 1.0598377 1.0901945 4279372041
-1.9284678 1.0555992 1.0974252 4281276178
-1.9042401 1.0594435 1.0891412 4281935391
-1.8723418 1.0570633 1.0869331 4278846215
-1.8449689 1.0632516 1.0852939 4278977540
-1.3815862 1.0574663 1.100163 4278387203
-1.3646318 1.0572076 1.0873413 4278452737
-1.3359804 1.0548021 1.0838335 4278780676
-1.308544 1.0563607 1.0850396 4278977284
-1.2763202 1.0530281 1.0824382 4278780930
-0.58592397 1.0553677 1.0836284 4281605901
-0.56070441 1.0518935 1.0852574 4282395678
-0.51755553 1.0534055 1.0876064 4283119393
-0.49367589 1.0537024 1.0825866 4283711534
-0.46853057 1.052321 1.0818516 4283644712
0.016147571 1.0585065 1.0834351 4281410056
-3.4096439 1.0821081 1.0977875 4283972369
-2.6752357 1.0803027 1.0851505 4285023808
-2.6329784 1.0841777 1.0848521 4285287993
-2.5545211 1.0880834 1.0886238 4284564772
-2.5325789 1.0900898 1.090062 4284498211
-2.500598 1.0830373 1.0836865 4285353519
-2.442791 1.0871637 1.0828145 4284498473
-2.4237502 1.0808429 1.0901532 4284433451
-2.2696781 1.0838518 1.0824287 4284038180
-2.2280223 1.0867404 1.0819314 4284038195
-2.2157645 1.0826713 1.0866556 4284037674
-2.1097116 1.0801723 1.0803144 4283838746
-2.084203 1.086239 1.0893588 4283380247
-1.845762 1.0888062 1.0857108 4279897093
-3.3123851 1.1157446 1.1027862 4284366633
-3.2786498 1.1225455 1.0960271 4285024042
-2.3036327 1.1164821 1.1030737 4294243821
-1.2963612 -0.83243895 1.113796 4286602561
0.5166024 -0.8263495 1.1381567 4285089847
0.55798513 -0.81902379 1.1327571 4285484592
0.59314048 -0.8168034 1.1313846 4285286446
0.61194217 -0.81725806 1.1195737 4285287998
0.56399459 -0.80747575 1.1308428 4285483061
0.5927186 -0.78939068 1.1258988 4288445794
0.61097103 -0.79625857 1.1235217 4286536515
0.59832954 -0.77939278 1.1340982 4290878870
0.61691594 -0.76806623 1.1242965 4290357152
0.63240045 -0.75718874 1.1231802 4290621094
0.62815541 -0.74036992 1.1216866 4291280059
0.64541745 -0.73831517 1.1180565 4291213501
0.66706693 -0.73170209 1.1192329 4291344827
0.60870761 -0.70457149 1.1395251 4291411134
0.64262021 -0.70590764 1.1263241 4291410879
0.70346481 -0.70925218 1.1203041 4291410623
0.73238808 -0.71108526 1.1224155 4291214013
0.6247015 -0.6799342 1.1334602 4291279291
0.64760971 -0.6737169 1.1201471 4291214270
0.67577904 -0.67450207 1.1160756 4291279296
0.62427074 -0.65637165 1.1374786 4291410883
0.65270686 -0.65797305 1.139931 4291346368
0.67621332 -0.6496467 1.1265801 4291148223
0.6943503 -0.6460712 1.1293076 4291278524
0.70459539 -0.61771625 1.1260751 4291015866
0.72056639 -0.60218447 1.1266649 4290884789
0.74076086 -0.5886243 1.1264449 4290752698
0.75483757 -0.57398438 1.1199861 4290035628
0.74818444 -0.54911172 1.1178675 4289967527
0.75454783 -0.55150038 1.12886 4285491319
0.76749068 -0.53154421 1.1290703 4282851914
0.79375428 -0.52466303 1.1137681 4288449433
0.82764572 -0.52165997 1.1144989 4289963440
0.75213218 -0.50442338 1.122514 4289503139
0.79577976 -0.49747917 1.1311041 4289174692
0.82297873 -0.49769855 1.1212255 4289568421
0.85166937 -0.48784149 1.126532 4289502117
0.8049736 -0.47114336 1.1366925 4289043360
0.83689058 -0.47833258 1.137272 4289239454
0.85563886 -0.46869698 1.1270525 4289370784
-2.9869092 -0.42886001 1.1166613 4289301926
0.85077673 -0.43901178 1.1348596 4289633447
-2.9825578 -0.41245475 1.1214284 4288778403
-2.9566476 -0.40634361 1.1248349 4288253333
-2.9202061 -0.41448954 1.1254354 4286544544
-3.0103424 -0.37110782 1.1131594 4288975787
-2.9798694 -0.37350148 1.1272027 4288976545
-2.95754 -0.37546486 1.1221299 4287923082
-2.9164429 -0.36513704 1.1184418 4286540125
-3.0145509 -0.34523273 1.1148827 4289172389
-2.9798455 -0.34224331 1.1201254 4288976547
-2.9542706 -0.34300777 1.1217257 4288713883
-2.9223766 -0.34433526 1.120947 4288711307
-2.9044759 -0.35407767 1.1273435 4285688400
-2.8763309 -0.33478293 1.1198268 4286606681
-3.0358799 -0.3004179 1.1105191 4289041060
-3.0100186 -0.30880895 1.1215227 4288713372
-2.9787903 -0.31802142 1.124011 4288911007
-2.959568 -0.31300262 1.1221417 4288975776
-2.9216013 -0.31240588 1.1187761 4288975001
-2.9032719 -0.30968627 1.1326311 4288779396
-2.8700924 -0.31296125 1.1177735 4288319092
0.43816909 -0.31120846 1.1195513 4288121476
-3.0315285 -0.28401268 1.1152861 4288778917
-3.0179298 -0.28217971 1.1190372 4288186254
-2.9857771 -0.28699449 1.1322331 4288713630
-2.9246054 -0.28371871 1.1213981 4288974485
-2.8964515 -0.28102309 1.1352686 4288515733
-2.0450194 -0.27678889 1.1302127 4282984715
0.043721482 -0.27621868 1.1374514 4287994795
0.070923656 -0.27813572 1.1322255 4292398281
0.1024746 -0.27576196 1.132683 4290023018
0.42920211 -0.29211748 1.1237493 4289240486
0.45451409 -0.27102113 1.1339601 4289897385
-3.0632586 -0.24958323 1.1258225 4288252817
-3.0409334 -0.25180689 1.1229141 4288713115
-3.0114684 -0.25876284 1.1269203 4288186003
-2.9918318 -0.24811022 1.1292862 4288779166
-2.9556737 -0.25675556 1.1275632 4288974999
-2.9020681 -0.26529491 1.1379186 4288647054
-2.1245244 -0.2459849 1.1157109 4284237088
-2.0751309 -0.24524391 1.1238625 4283445008
-2.0548162 -0.25648481 1.1306436 4283114251
-2.017735 -0.24633449 1.1351247 4285222203
-1.9972436 -0.25294673 1.1310039 4283840546
-0.19788826 -0.24626328 1.1143986 4279176205
-0.17115352 -0.2442704 1.1143218 4284832612
-0.07408414 -0.24830803 1.1279091 4284900235
-0.04592181 -0.25337374 1.1328626 4284111466
-0.023229733 -0.25739986 1.1193645 4283454591
0.010447237 -0.2529383 1.1327132 4283125356
0.049105797 -0.25138715 1.1302079 4285823894
0.069957733 -0.25145042 1.1257436 4288978086
0.10560899 -0.25719699 1.11563 4284236083
0.13738072 -0.25468999 1.1159819 4285758349
0.40355968 -0.24842125 1.1268559 4287463295
0.45944309 -0.24614801 1.1302966 4286477165
0.48687807 -0.24143603 1.1234317 4290030249
0.51407278 -0.25398764 1.1278899 4291475125
-3.067812 -0.22612488 1.1276878 4288910499
-3.0433452 -0.22478724 1.1191038 4288910240
-3.0149975 -0.22585098 1.1284106 4288712854
-2.990145 -0.22682314 1.1303152 4288184969
-2.9585266 -0.22330967 1.1278297 4288843930
-2.0813808 -0.22581035 1.122456 4284891939
-2.0487504 -0.22772792 1.1272671 4286863677
-2.0213857 -0.22084919 1.1272163 4287260994
-1.991591 -0.227548 1.1300095 4286997317
-1.9672399 -0.22255409 1.1302094 4288310598
-0.22705422 -0.21446601 1.1255617 4280357655
-0.19063845 -0.22075374 1.123386 4280227108
-0.16071069 -0.22812361 1.1347947 4283521637
-0.12882662 -0.21241908 1.1295017 4288382350
-0.099588521 -0.22329025 1.1374086 4285298561
-0.067739479 -0.22209214 1.1257674 4285558932
-0.034866348 -0.21886924 1.1324482 4284968842
-0.014482052 -0.23284046 1.1244372 4284507518
0.016466361 -0.2268268 1.1141825 4283782772
0.044332519 -0.2238186 1.1221102 4283388278
0.07187283 -0.22785482 1.1287327 4282925917
0.29309297 -0.22164255 1.1302167 4292001205
0.31571439 -0.21880788 1.1277738 4291211430
0.35231513 -0.21315357 1.1321733 4288517003
0.3713634 -0.2168709 1.1156156 4287528059
0.40021008 -0.23036084 1.1242847 4286605933
0.43250418 -0.23071879 1.1262999 4284437849
0.46103844 -0.21955228 1.1168809 4287531404
0.49117577 -0.23369828 1.1210313 4290491825
-3.1128032 -0.18837719 1.1180062 4288843683
-3.0689621 -0.18644831 1.1290779 4288712603
-3.0463109 -0.19503713 1.1256155 4288975771
-3.008353 -0.20133287 1.1325414 4288909204
-2.9747114 -0.19482985 1.1259873 4288909722
-2.9694574 -0.19127689 1.1175572 4289042072
-2.0768132 -0.19730547 1.1237023 4287390780
-2.0534108 -0.19436395 1.1270977 4288114241
-2.0249081 -0.19767672 1.1265525 4288444239
-2.0021367 -0.1923997 1.1308409 4288377411
-1.9701653 -0.19497654 1.1302238 4287916090
-0.25097078 -0.1855274 1.1271629 4285294706
-0.22393425 -0.18931206 1.1165389 4283120438
-0.19475321 -0.18778124 1.1208489 4287132536
-0.16545245 -0.18889451 1.1181289 4285687666
-0.14029065 -0.1986618 1.1263759 4287332254
-0.10454824 -0.19284117 1.130964 4289305236
-0.071786195 -0.19538911 1.1276174 4284637558
-0.047692839 -0.19504893 1.1239604 4285231242
-0.018131053 -0.1881983 1.125972 4282796407
0.01170581 -0.19040021 1.1170633 4283455098
0.045080151 -0.19946998 1.1211516 4282862973
0.072791852 -0.20235814 1.1148436 4283852435
0.19770628 -0.1867744 1.1123568 4292923599
0.2233454 -0.19296665 1.119532 4292660166
0.25283805 -0.18722884 1.1168926 4292397248
0.28804857 -0.19759372 1.1250429 4291870134
0.31256852 -0.20390753 1.1204987 4291079845
0.34282118 -0.19714476 1.12235 4287464576
0.36644611 -0.1981761 1.127198 4284966252
0.4069083 -0.20971778 1.1246234 4284024109
0.47416824 -0.18450752 1.1328746 4280301411
-3.0930076 -0.16198602 1.1225926 4288450203
-3.0790186 -0.17181511 1.1233466 4288778653
-3.0441434 -0.16127688 1.1248822 4288974999
-3.0122342 -0.16154815 1.1268119 4289173662
-2.9940906 -0.17394066 1.1256424 4289303961
-2.9562926 -0.16152713 1.1131992 4288843412
-2.0814312 -0.16116764 1.1255547 4286733881
-2.0545683 -0.16650839 1.1239206 4288375868
-2.0256758 -0.16383158 1.1201189 4288245825
-1.9988883 -0.16555688 1.1247077 4288046913
-1.9638393 -0.1779716 1.1382658 4287325488
-0.28894591 -0.15551335 1.112886 4288189347
-0.24976458 -0.16381167 1.1138955 4287334021
-0.22709993 -0.15706889 1.115646 4285884523
-0.19978149 -0.17482685 1.1263725 4286609288
-0.16840138 -0.16514479 1.1292876 4288646807
-0.14075129 -0.15829889 1.1241393 4290556860
-0.10613801 -0.16877025 1.1169403 4289830816
-0.083368868 -0.16863006 1.1241319 4287264891
-0.047138035 -0.15521148 1.1312995 4283586418
-0.014987935 -0.16339922 1.1249154 4283323787
0.018906189 -0.16116305 1.1274304 4281943427
0.049439996 -0.15710475 1.1300976 4285624464
0.07523647 -0.16307694 1.1319222 4283650434
0.1043512 -0.16091368 1.1269388 4283651213
0.12810174 -0.15880448 1.1258347 4284309647
0.17399129 -0.15895407 1.12748 4283655122
0.19494995 -0.17482708 1.1127652 4292923851
0.23990124 -0.15376185 1.1388918 4292397525
0.25056574 -0.15036117 1.1339201 4292266450
0.28711703 -0.15702254 1.1314307 4291344567
0.30922407 -0.1527051 1.1282947 4290028712
0.33589244 -0.16540301 1.137362 4288777875
0.37731066 -0.16587538 1.1301891 4281739319
0.39623007 -0.16790283 1.1315048 4282269767
0.43486962 -0.16062623 1.1263605 4282924106
0.45815161 -0.17049271 1.1257914 4281021009
0.55821097 -0.15651339 1.1326103 4282200628
0.58346319 -0.15897238 1.1261201 4281806644
0.61575466 -0.15864509 1.1241586 4279900196
0.64032543 -0.16050506 1.1353821 4280165427
-3.1029088 -0.13537461 1.1189022 4288517024
-3.0742111 -0.13201304 1.1276082 4288712086
-3.0466719 -0.13732737 1.1214973 4288647326
-3.0177498 -0.14391208 1.1302986 4288975255
-2.0761518 -0.13065723 1.121032 4287587140
-2.0503683 -0.12964803 1.1269987 4288112433
-2.0299911 -0.13170719 1.1220788 4288046899
-2.0001535 -0.13629466 1.1278158 4287587387
-0.54469275 -0.12593113 1.1388491 4279109396
-0.51560676 -0.12172049 1.1367633 4282525459
-0.45985305 -0.1308725 1.1319177 4287398541
-0.42803591 -0.12979084 1.123991 4286015863
-0.41128629 -0.12633435 1.1246378 4282991456
-0.37251455 -0.12459801 1.1283202 4282663764
-0.34439656 -0.13281408 1.1336917 4283256411
-0.31447682 -0.137133 1.1179997 4283256937
-0.27712226 -0.1297383 1.1172544 4283646529
-0.25603345 -0.13218585 1.1155502 4280950813
-0.22797306 -0.14433253 1.125146 4285227351
-0.19227932 -0.13856325 1.1281374 4287267715
-0.16506118 -0.1345488 1.1166897 4289108639
-0.13829765 -0.13008729 1.1256942 4289832101
-0.10653895 -0.13523823 1.1205553 4290687668
-0.071227193 -0.13610069 1.1191519 4286341488
-0.045847028 -0.13826931 1.1212593 4288980405
-0.015199145 -0.13847673 1.1198525 4290753219
0.016917342 -0.13329171 1.1175774 4290950080
0.047881216 -0.13393208 1.1155075 4291411660
0.069885336 -0.14416845 1.1195765 4289109673
0.10180338 -0.14668964 1.1118478 4284046221
0.13837615 -0.13920361 1.113655 4287598767
0.16789292 -0.1342386 1.1259308 4291871945
0.20044854 -0.12992339 1.1188036 4292464342
0.22498789 -0.13799241 1.1248956 4292398549
0.2548067 -0.13695836 1.1223894 4292266707
0.28255925 -0.14015912 1.1190047 4291475649
0.34904569 -0.14820296 1.1312405 4288317579
0.43244696 -0.1370763 1.1224762 4285031270
0.56318629 -0.14554268 1.1276953 4282529864
0.57967651 -0.14429004 1.1211426 4281607977
0.6139307 -0.14322507 1.1158359 4282653468
0.63935781 -0.14367668 1.1270235 4281675058
-3.1344006 -0.10088375 1.1177422 4288384157
-3.0960803 -0.098650217 1.1225942 4288647067
-3.0764377 -0.10860682 1.1306485 4288515998
-3.0465209 -0.10282592 1.1244961 4288909208
-3.0180073 -0.11439544 1.1206126 4289042335
-2.0809343 -0.1014851 1.1213255 4287390519
-2.0543344 -0.1107951 1.1213088 4288047153
-2.0280101 -0.10420828 1.1221942 4287784240
-2.0044956 -0.10499315 1.1310766 4287456055
-1.4235839 -0.097164929 1.1316181 4281610301
-1.4025284 -0.10177991 1.1384914 4282070086
-1.3736577 -0.09359213 1.1334698 4282070079
-0.97080678 -0.095685601 1.1309589 4282006355
-0.94826961 -0.091373697 1.1301527 4283521128
-0.91499853 -0.093662791 1.128504 4284768108
-0.89995742 -0.095904946 1.1140728 4288449662
-0.8454088 -0.095536426 1.1314936 4285286764
-0.82189959 -0.098185793 1.1317064 4290556078
-0.79445571 -0.098792739 1.1287044 4289303427
-0.76353484 -0.10553233 1.1311986 4288119691
-0.73867762 -0.099315889 1.1281145 4290556336
-0.70476365 -0.097636938 1.1330853 4291345340
-0.65182227 -0.093333177 1.137306 4290358191
-0.62327737 -0.092758164 1.1260915 4290161571
-0.57927132 -0.09297432 1.1310915 4288056210
-0.55462402 -0.099293321 1.1287086 4287333003
-0.52876711 -0.10346323 1.1337165 4288779675
-0.49476188 -0.097940207 1.1290824 4288780448
-0.46645004 -0.097187564 1.1287951 4287463562
-0.43352094 -0.09573561 1.1334788 4286346108
-0.40091643 -0.1092639 1.1291656 4282135875
-0.36905169 -0.10187431 1.1359556 4278716167
-0.34098837 -0.10186741 1.1229126 4278584325
-0.30973846 -0.10794771 1.1191611 4278847755
-0.28352743 -0.10212407 1.1267799 4280755260
-0.25690705 -0.10077912 1.1215696 4283978081
-0.22762291 -0.10074602 1.1317856 4285160531
-0.20166653 -0.097251698 1.128587 4283713344
-0.15881957 -0.11208955 1.1291329 4285029213
-0.13895015 -0.11170506 1.1297842 4287529862
-0.10346995 -0.098763458 1.1268375 4284771712
-0.076558232 -0.10859885 1.1148556 4290620853
-0.049751449 -0.10161066 1.117757 4290751672
-0.013782484 -0.096391529 1.1148324 4290687424
0.014782174 -0.1083387 1.1200547 4292331468
0.045331437 -0.10589603 1.1204249 4292199892
0.074761711 -0.10538769 1.1183213 4291608789
0.1052449 -0.10596015 1.1190869 4291345090
0.13458632 -0.1019084 1.1280063 4288713124
0.16591421 -0.11049268 1.1238056 4291871950
0.18851092 -0.095303684 1.138968 4293517537
0.26943275 -0.090254158 1.1370919 4293121495
0.32920676 -0.096466713 1.1384029 4292989387
0.35348034 -0.095943101 1.13822 4293977066
0.37565356 -0.0927907 1.1379429 4292989649
0.41414198 -0.10369883 1.1269659 4290028434
0.43590128 -0.10152956 1.1265291 4290618016
0.46691266 -0.091653973 1.1391572 4287657076
0.50577104 -0.1007321 1.1325324 4282791226
0.52556229 -0.096309088 1.1239321 4283715412
0.55627948 -0.092582345 1.1283076 4283059796
-3.1536453 -0.089674771 1.1116058 4288711584
-3.1378129 -0.07224679 1.1167156 4288318367
-3.1090372 -0.07330928 1.1244035 4288319640
-3.078444 -0.075282589 1.117445 4288515995
-3.0460167 -0.071011126 1.121611 4288646544
-3.0237017 -0.086012363 1.1250138 4289106588
-2.0730214 -0.078621641 1.1238873 4287718972
-2.0532351 -0.064165585 1.1281219 4287718710
-2.02441 -0.075745642 1.1266332 4287653167
-2.004591 -0.075259037 1.1310016 4287125805
-1.6600533 -0.060192611 1.131196 4292333008
-1.6447872 -0.065804951 1.1327494 4292200134
-1.5956546 -0.061737798 1.1288853 4280156474
-1.5724018 -0.064301059 1.1322412 4280292902
-1.5358903 -0.062592119 1.1384813 4281478456
-1.5097831 -0.067143463 1.131518 4281477938
-1.490501 -0.067473322 1.1228614 4281804603
-1.4506972 -0.070255071 1.1307774 4282530900
-1.4267602 -0.063979745 1.1234616 4282005830
-1.396163 -0.079026878 1.1224328 4281346372
-1.368222 -0.07426855 1.1211364 4281610560
-1.3438548 -0.063691802 1.1332363 4283122758
-1.3046397 -0.062309667 1.1332932 4282530109
-1.2792406 -0.068203956 1.1347677 4282069566
-1.2542148 -0.067436554 1.1352648 4283714885
-1.1764288 -0.062454775 1.1303335 4280886578
-1.152238 -0.066278554 1.1346147 4281281334
-1.1274074 -0.068123952 1.1278965 4281477944
-1.0968885 -0.075177461 1.1328402 4281083953
-1.0661358 -0.068360008 1.1311373 4281216057
-1.0284839 -0.067062117 1.1349698 4286345852
-1.0074339 -0.066429317 1.1344359 4281674798
-0.98205405 -0.068997748 1.1321455 4279437840
-0.94457704 -0.077272654 1.124414 4284900480
-0.91580844 -0.075602651 1.1185101 4282334291
-0.87791574 -0.070326641 1.1203997 4280946768
-0.85741353 -0.072708577 1.1178033 4284837783
-0.81762129 -0.066268712 1.1233603 4289436573
-0.79480839 -0.066821195 1.1284143 4283254093
-0.76444691 -0.072205767 1.1279639 4281873204
-0.73249328 -0.064838998 1.1273572 4284631640
-0.700782 -0.063333288 1.1247659 4284765779
-0.68392867 -0.069327511 1.1301101 4286017135
-0.64667898 -0.067301966 1.1295253 4284571232
-0.61710012 -0.069489516 1.132134 4290425521
-0.58446628 -0.065186188 1.134643 4291148994
-0.55682451 -0.06626983 1.1319411 4290819767
-0.53177547 -0.064982161 1.1383381 4290423984
-0.49505153 -0.06319768 1.1369787 4290752176
-0.45690006 -0.07164897 1.1325067 4289108374
-0.43498975 -0.074805729 1.1237729 4287398289
-0.40502587 -0.067792192 1.1364424 4283384897
-0.37533632 -0.070537023 1.1313834 4279110160
-0.350012 -0.068758696 1.1350203 4279372044
-0.31266811 -0.070735127 1.1320702 4279637271
-0.28436467 -0.071778953 1.1323742 4285229161
-0.25864419 -0.065030918 1.1325425 4288911768
-0.23093472 -0.065935425 1.1284873 4290754486
-0.19311881 -0.075668812 1.1274321 4290029223
-0.1632735 -0.072690487 1.1258696 4289568141
-0.13527784 -0.080325656 1.130451 4285416491
-0.10879883 -0.067585193 1.1324112 4285877046
-0.082570545 -0.074446313 1.127913 4281018674
-0.045181278 -0.075085171 1.1239076 4281346894
-0.016299825 -0.075499356 1.1141167 4286544762
0.022335114 -0.087188251 1.1114352 4293451746
0.047565866 -0.08795283 1.1106248 4294373103
0.080970794 -0.088199295 1.1119212 4294439152
0.10809276 -0.074701965 1.1233234 4292133317
0.1387343 -0.070130274 1.1276438 4292332237
0.16927472 -0.075731739 1.1304934 4293385432
0.19282956 -0.074672133 1.1316401 4293253342
0.22853132 -0.070145682 1.1278427 4293385438
0.25437474 -0.074753396 1.1272004 4293451228
0.28395063 -0.075862691 1.1216847 4293253852
0.3157278 -0.068352342 1.1324047 4292728534
0.3475948 -0.077737451 1.1267381 4293121238
0.37331101 -0.074988216 1.1316737 4292858833
0.40274188 -0.070945583 1.125949 4292726732
0.43444467 -0.078966901 1.1224029 4292001725
0.46551135 -0.074262865 1.1266136 4291343530
0.49644232 -0.074501187 1.1231261 4288908415
0.52523357 -0.075469881 1.1200113 4286672487
0.54642808 -0.074167199 1.1132655 4284765263
0.57640886 -0.066726685 1.1137916 4282002234
0.60668498 -0.06145997 1.1132572 4284239696
-3.1815691 -0.032631624 1.1131674 4288581531
-3.162569 -0.040918969 1.1190568 4288384413
-3.1362164 -0.041864157 1.1269231 4288253337
-3.1038842 -0.049695197 1.1261485 4288253592
-3.0689366 -0.046929721 1.1276869 4288843672
-3.0484061 -0.048394814 1.1232796 4288975255
-2.1049082 -0.03870222 1.1218932 4286075432
-2.076597 -0.041594639 1.118682 4287586872
-2.0493221 -0.047814727 1.1285809 4287652913
-2.0343261 -0.04220479 1.1232493 4287588151
-2.0073028 -0.043489046 1.1298428 4287060521
-1.7758956 -0.04434051 1.1262506 4287323465
-1.7545429 -0.044379346 1.125002 4289628007
-1.7296954 -0.042616859 1.1299534 4288444249
-1.6877124 -0.038997144 1.1287069 4293452252
-1.6683888 -0.034820452 1.1349663 4294440695
-1.6311402 -0.040917709 1.1303967 4293584105
-1.6012174 -0.036801968 1.1279155 4288377983
-1.5831856 -0.042816721 1.1335375 4281079328
-1.5473226 -0.048469186 1.1182009 4280688175
-1.5084789 -0.044463113 1.1230438 4280093451
-1.4862702 -0.042013466 1.1155703 4280093199
-1.4548602 -0.040639587 1.117936 4280487959
-1.4249138 -0.040811624 1.1213664 4279634965
-1.3934113 -0.042617653 1.1214504 4279307283
-1.3648404 -0.049031209 1.1203738 4279701274
-1.3292329 -0.041069392 1.1258633 4284372565
-1.3054264 -0.047471549 1.1200087 4282069820
-1.2781531 -0.035957783 1.1228541 4282395697
-1.248495 -0.041985758 1.1261255 4281676595
-1.2169527 -0.038748559 1.1220326 4284438877
-1.1808776 -0.045497485 1.1195668 4281149747
-1.154153 -0.042443886 1.1188362 4281084466
-1.1306447 -0.053122655 1.1195364 4281346101
-1.0971659 -0.052115548 1.1149257 4280886573
-1.0721579 -0.049894612 1.1188678 4280754474
-1.0322421 -0.051469397 1.1244241 4282865502
-1.0041306 -0.05027163 1.1278268 4280426535
-0.9809882 -0.050192934 1.1191311 4279438097
-0.94562471 -0.03798629 1.1263298 4279964455
-0.90631711 -0.046342917 1.1174016 4280031793
-0.88425791 -0.05179704 1.1156116 4280162339
-0.84800076 -0.043545641 1.1287849 4283912045
-0.8203553 -0.051539656 1.116997 4289437090
-0.79710674 -0.052126151 1.1154258 4282531903
-0.77002192 -0.057459079 1.1180648 4283515468
-0.74065673 -0.049777597 1.1183052 4286147435
-0.70076162 -0.048562218 1.1197062 4288583562
-0.67152715 -0.048640274 1.1160545 4286346094
-0.63896668 -0.041602969 1.1190872 4288976788
-0.61525995 -0.039462421 1.1311766 4290620579
-0.58340651 -0.039557464 1.132508 4291213752
-0.55591887 -0.03621266 1.131389 4291607736
-0.52816725 -0.036477536 1.1351953 4291871162
-0.49666175 -0.035621312 1.1348656 4291871418
-0.46899998 -0.035745736 1.1344105 4291739577
-0.43197295 -0.039896574 1.1360769 4289502606
-0.39950174 -0.037766818 1.1159375 4287066473
-0.37413785 -0.043464791 1.1225464 4285751904
-0.35361493 -0.039046042 1.1252941 4286803823
-0.31557012 -0.043852303 1.1254202 4287594102
-0.285754 -0.04207401 1.1304935 4290094232
-0.26184165 -0.035416808 1.1321523 4291542971
-0.2250537 -0.035448778 1.1330098 4290883752
-0.18860281 -0.037887484 1.1340981 4290356373
-0.16514222 -0.0422903 1.1244895 4289891960
-0.1397462 -0.039192647 1.1334382 4291871175
-0.10715278 -0.04813895 1.1232988 4291473829
-0.071364723 -0.044661324 1.1188225 4286734927
-0.038886651 -0.054504018 1.1248964 4280493098
-0.015664322 -0.052750792 1.1206199 4279701517
0.0030787347 -0.054320477 1.1134472 4278321409
0.10791785 -0.056735191 1.1173909 4291146930
0.13814697 -0.053435478 1.1113179 4293122523
0.16317683 -0.057210349 1.1143348 4293847526
0.19410174 -0.055666208 1.1173376 4293649635
0.22063512 -0.04174082 1.125458 4285954938
0.25626454 -0.0486091 1.1209276 4290886589
0.28245369 -0.050814223 1.1163133 4293255647
0.31957796 -0.046379417 1.1166788 4293715172
0.33991989 -0.055469882 1.1199523 4293582559
0.37186733 -0.051643241 1.1174676 4293385946
0.40948102 -0.0585109 1.1171982 4293056210
0.43015224 -0.056142643 1.1136506 4292792524
0.46440986 -0.055362545 1.1129287 4292134853
0.48871583 -0.055092894 1.1121337 4291607477
0.52069139 -0.056858934 1.1157507 4289698709
0.56020105 -0.057886083 1.1160069 4286277733
0.58580637 -0.055763714 1.114808 4284170053
0.60675865 -0.055787686 1.11405 4284041551
-3.1573036 -0.024445515 1.116003 4288318364
-3.1285288 -0.018403724 1.1235406 4288122006
-3.1016185 -0.011317256 1.1239728 4288317580
-3.0798168 -0.019053543 1.130826 4288382860
-3.0516279 -0.0026500083 1.1262084 4288843667
-2.1024933 -0.0096748853 1.1181355 4286141231
-2.0777659 -0.018251538 1.1216249 4287521598
-2.0444691 -0.018793914 1.1256031 4287522100
-2.0339003 -0.017994417 1.125645 4287390262
-2.0042002 -0.00843623 1.1350591 4286928931
-1.8965833 -0.018459296 1.1364053 4284299801
-1.8696018 -0.016652698 1.1243492 4284430358
-1.8433887 -0.017941229 1.1249747 4284430616
-1.8065649 -0.0058452166 1.1342362 4285880131
-1.775784 -0.016474001 1.1206715 4290221432
-1.7520971 -0.016706564 1.1249396 4293187521
-1.7301645 -0.013574595 1.1214879 4294440174
-1.6939818 -0.017287608 1.1220818 4294505719
-1.662691 -0.0076055522 1.1280879 4289764512
-1.633007 -0.018532317 1.1157275 4294242804
-1.6090906 -0.02198812 1.1187172 4293781740
-1.5803921 -0.015719354 1.1114447 4292330429
-1.5447413 -0.022245647 1.1181213 4286478175
-1.5077366 -0.018830176 1.1167982 4284963922
-1.4936094 -0.012361821 1.1169465 4283320643
-1.454522 -0.017587211 1.1125358 4290157945
-1.4293408 -0.020249922 1.1140821 4283903820
-1.3969541 -0.0059999251 1.1362537 4290162101
-1.3643916 -0.010562281 1.1134162 4287395707
-1.3368148 -0.023496794 1.1155382 4285818972
-1.2975208 -0.019859126 1.1254311 4287070081
-1.2716515 -0.019929525 1.1161443 4287071100
-1.2487352 -0.01960283 1.1164608 4285029968
-1.2215117 -0.018090785 1.1208448 4283978842
-1.1870031 -0.017224036 1.1189713 4281018157
-1.1597917 -0.017451126 1.1231372 4281017641
-1.1352899 -0.023563262 1.1201322 4281017902
-1.0287555 -0.029884448 1.1205583 4279571226
-0.99692589 -0.02092894 1.1198328 4280097051
-0.97892344 -0.019969581 1.1241941 4280886057
-0.94861329 -0.01814203 1.1255833 4281347123
-0.85167044 -0.021432081 1.1160882 4283321173
-0.82726282 -0.0062210872 1.1316767 4281346862
-0.79198325 -0.0067839799 1.129639 4284894804
-0.76447433 -0.013554303 1.1232376 4287334527
-0.73604786 -0.021926468 1.1176959 4289305493
-0.70539725 -0.02217011 1.139786 4289897377
